# .PCD v0.7 - Point Cloud Data file format
VERSION 0.7
FIELDS x y z intensity
SIZE 4 4 4 4
TYPE F F F F
COUNT 1 1 1 1
WIDTH 1263
HEIGHT 1
VIEWPOINT 0 0 0 1 0 0 0
POINTS 1263
DATA ascii
0.6840868 -1.4152395 0.42568013 5
0.7707482 -1.4281063 0.44351664 5.3333335
0.83243412 -1.4594122 0.44166777 7
1.0769256 -1.431079 0.42010632 20.166666
-0.21649621 -1.3091973 0.46359289 3.1666667
-0.17271043 -1.3307366 0.44789749 4.125
-0.037925083 -1.3694906 0.41861835 15.285714
0.17633143 -1.3657824 0.40258354 3.375
0.2429696 -1.3455145 0.40510702 3.625
0.3039012 -1.3474268 0.40148354 5.5
0.53884125 -1.3473501 0.45507175 6.5999999
0.75860822 -1.3595248 0.41738898 5.625
0.83517164 -1.3244925 0.40840489 5.9375
1.0858296 -1.3527651 0.43104604 37.833332
1.1015294 -1.309963 0.43556187 26
2.2809188 -1.3449186 0.44000596 34.875
2.3026047 -1.3091248 0.43991452 48
-0.25791031 -1.272215 0.47026646 1
-0.15507179 -1.2605125 0.44680509 3.6666667
-0.077528544 -1.2384825 0.44635797 2
0.29793453 -1.2486646 0.42762429 3
0.54632264 -1.2486778 0.41453245 5.9166665
0.60683924 -1.2143084 0.4078505 4.5999999
0.87639153 -1.277378 0.41229337 4.4285712
0.90503085 -1.2982968 0.40458074 6
1.0824167 -1.2316041 0.44951212 20.444445
2.291579 -1.251189 0.44454557 47.5
2.3050089 -1.2326382 0.44417995 45.5
4.8614349 -1.2349945 0.49933088 2
-0.20095438 -1.1327316 0.4633413 1
-0.16825503 -1.1514448 0.46389732 2.2
-0.088500157 -1.1829679 0.47055322 4.8000002
0.35602993 -1.1223484 0.45609438 1
0.6583119 -1.1782532 0.40988076 4.8333335
0.73864746 -1.1326607 0.40918645 6.0476189
1.0639007 -1.1641806 0.44305977 23.833334
2.2811077 -1.1494823 0.45149213 24.375
4.8777552 -1.1420715 0.49965364 7.75
0.26266897 -1.0224555 0.48870558 4
0.33582446 -1.0780721 0.46903533 3
0.75104952 -1.0387172 0.43446103 1
0.84818023 -1.0477644 0.41028342 6
0.91170043 -1.031215 0.40277767 7
1.073191 -1.0435382 0.45253128 17.333334
1.1143119 -1.0632823 0.41436613 41.5
2.1647778 -1.0174843 0.47143805 5.3333335
2.2464182 -1.0831026 0.45892617 8.5
4.9237752 -1.0498215 0.49835399 19
0.27834165 -0.99158722 0.49560738 6.5555553
0.30072671 -0.98983145 0.49439961 1
0.71347749 -0.98964548 0.46634898 1
0.89813912 -0.92504084 0.47229099 24.5
0.93243635 -0.94145572 0.44034305 18.0625
1.0454414 -0.94502878 0.47563055 10.875
2.0011563 -0.90944976 0.49524325 2
2.1307499 -0.98636186 0.47684097 4
4.9410496 -0.95449346 0.49845862 8.666667
0.99711072 -0.8937189 0.4608185 8.5
1.0629424 -0.87052745 0.44332299 21.918919
1.1457965 -0.84923404 0.44688144 8.6279068
1.2477664 -0.83883709 0.46657827 1.6363636
1.3531741 -0.82761532 0.44388291 3.7142856
2.0052018 -0.80405402 0.49987426 6
-2.2183812 -0.75689209 0.47732842 8.5
-2.195672 -0.72086155 0.44106662 26.125
1.1270828 -0.796826 0.40174237 35.5
1.235056 -0.79514438 0.43082508 3.3333333
2.0262146 -0.77211571 0.49889931 8
-2.2016168 -0.66998732 0.40218282 64.5
-2.1900539 -0.64794803 0.4484334 66.954544
2.2109346 -0.61689526 0.48330003 1
-2.1866539 -0.54898262 0.45048919 72.040001
2.0855916 -0.5933094 0.49889931 1
-2.1804221 -0.44989112 0.4528718 69.125
-2.1764071 -0.35161644 0.45591858 65.96154
-2.1729383 -0.25119573 0.45830303 65.96154
-2.1705203 -0.15198842 0.45994598 63.96154
-2.1665354 -0.05131105 0.45663711 62.799999
-2.1631351 0.050372526 0.4526954 65.809525
-2.8325932 0.19509362 0.41651562 50
-2.5071573 0.1819146 0.45648879 16
-2.2749557 0.18502635 0.48488432 31.75
-2.1608119 0.12367795 0.44907638 53.555557
-2.2750914 0.24836914 0.4841125 36.583332
-2.310123 0.35391051 0.47818151 29
-2.2860575 0.32169572 0.48167512 34.166668
-2.9072952 0.48705217 0.40319124 57.666668
-2.8719001 0.45541471 0.40810663 55
3.4134924 0.4852207 0.46206895 22.666666
-2.9033198 0.52789462 0.40280533 41.75
-2.867166 0.55828261 0.40647358 23
-2.7296798 0.57539278 0.42260909 30.333334
1.0273622 0.59067732 0.49636078 4.3333335
1.8988167 0.57618105 0.4523983 19
1.9178567 0.57280242 0.44966069 10.25
2.0723245 0.56614631 0.4264302 7
2.1613612 0.55930221 0.4463889 11.785714
2.8511794 0.55188131 0.40855348 1
3.0495191 0.52558386 0.49298018 30.75
3.1287112 0.50505221 0.48644352 13
3.2878172 0.51309502 0.47258574 1
3.392767 0.51220298 0.46352154 12.5
5.4031868 0.56503755 0.47748938 1
-2.8873484 0.65688378 0.40155011 56.400002
-2.4778907 0.64867574 0.45063904 1
-2.3311255 0.66102743 0.46761474 4.7647057
0.9327293 0.63192981 0.46969417 5.181818
1.0617353 0.64453119 0.47591558 3
1.1512067 0.6832667 0.42572019 7.3636365
1.99849 0.62169456 0.43519053 7
2.074729 0.67346942 0.42118964 4.25
2.1262646 0.6389879 0.41497916 4.5999999
2.8167338 0.67016917 0.40963 21
5.3950996 0.63728023 0.47748938 1
-2.8809562 0.72311175 0.40042886 37
-2.7875538 0.719872 0.41164085 1
-2.3354831 0.73995399 0.46431553 8.7777777
-1.2828059 0.79382437 0.42167702 4
1.0600544 0.77314961 0.42000762 1.1428572
1.1470135 0.71706265 0.42795354 5.5384617
2.0957141 0.72447807 0.41547975 3
2.1288414 0.74278527 0.42585117 7.1999998
2.2070184 0.78370577 0.47757217 13.5
5.3865528 0.7062844 0.47748938 1
-2.4927828 0.85347021 0.44162071 8
-2.3810484 0.80594027 0.45648879 6
-1.3216804 0.80878311 0.43955189 5.25
-1.2861567 0.81304413 0.44806597 10.727273
1.0632317 0.83838886 0.40871054 1
1.1019481 0.81510198 0.40433058 1
1.9338341 0.83154833 0.43326861 8.8571424
2.0439668 0.83877337 0.4321619 7.6999998
2.1407113 0.81185889 0.40406001 9.5
2.3278337 0.84956384 0.46087608 9
2.7522113 0.88684034 0.41009715 20.333334
3.4510133 0.80117106 0.45376009 1
3.52861 0.81925416 0.44678766 1
-2.8841166 0.95636898 0.48991027 57.076923
-2.7467747 0.95115542 0.40822849 8
0.6077159 0.94480038 0.47058824 13
0.97972614 0.94938099 0.40600294 1
1.0129802 0.92760259 0.40355414 1
2.0159416 0.94717675 0.4138841 4.6999998
2.3876243 0.98605847 0.4479579 25
2.430522 0.96908998 0.44385496 29.666666
2.5695782 0.96830976 0.42797136 19.4
-2.866827 1.0321372 0.4971346 31.833334
-2.7225723 1.0924665 0.40493804 2
-2.6490307 1.0949931 0.41318452 2.3333333
-2.5175202 1.0613718 0.42967752 1
-2.4258087 1.0703874 0.43957329 3.5999999
-2.3529494 1.0778071 0.44734859 13.333333
0.17960253 1.0295243 0.49148789 33.625
0.85043335 1.0759832 0.41647938 13.083333
1.0852551 1.0306195 0.45962325 7.3333335
1.1452353 1.0587504 0.43205109 7.4000001
1.2363521 1.0996153 0.44662878 2
1.9922669 1.0046175 0.4132897 9.5
2.028616 1.0401641 0.44551039 11.75
2.1678176 1.0358355 0.47013813 21
2.220583 1.0611656 0.46294785 22
2.3601716 1.077574 0.44655639 14.5
2.4251959 1.0869763 0.43881771 15.75
-2.7438467 1.1007947 0.40213504 2
-2.3088627 1.1447951 0.44868913 24
-2.2944806 1.1706793 0.44885162 23.333334
-1.3156224 1.1165184 0.49338415 1
0.078052238 1.1852831 0.47901291 61.599998
0.11675647 1.1927683 0.48380056 57.777779
0.76173484 1.1459908 0.45584151 25.555555
0.84311152 1.1351786 0.46990061 21
0.95113569 1.1413791 0.44915569 21.153847
1.0495783 1.1560065 0.44172272 12.958333
1.1409744 1.1503106 0.44071534 11.777778
1.2477491 1.1333075 0.44059926 5.8000002
1.8803729 1.1093599 0.49707127 12
1.9639821 1.1314547 0.48683423 16
2.0389066 1.1205249 0.47053999 15.555555
2.18239 1.1139029 0.46428841 19
2.2394395 1.1135442 0.45804873 26.4
-2.3043489 1.2319663 0.44430184 24
-2.2735419 1.2421908 0.4470236 19.5
-2.1308954 1.2304987 0.46300009 27.285715
-2.0914989 1.2671893 0.4648734 28.4
-1.7517928 1.2853982 0.49835089 26
-1.4352432 1.2402635 0.46624273 6.5
0.086639509 1.209152 0.46405035 60.599998
0.1125403 1.2079518 0.44651806 51.666668
-2.1248059 1.3226261 0.45782936 14.5
-1.7494317 1.3558351 0.49335977 30.454546
-2.2824602 1.4650807 0.43211487 15
-1.7359707 1.4090252 0.49061218 23
-2.319768 1.5699266 0.42120758 33.5
-2.2579269 1.5619457 0.42800179 33.125
-2.1026597 1.5142553 0.44698295 13
2.2732396 -1.4006951 0.53010851 2
3.8547418 -1.4098723 0.54709619 18
2.2900691 -1.3541322 0.53094131 43.444443
2.3065214 -1.3332815 0.53063148 50
3.8669059 -1.3840351 0.5469566 11.666667
0.48061115 -1.2429487 0.50921416 2
2.2914045 -1.2490971 0.53538144 49.375
2.301343 -1.2777563 0.53342044 50
4.8462749 -1.2190986 0.5003078 4
-0.09599977 -1.1603116 0.50115973 8
1.0638933 -1.1518326 0.5183354 29
2.2882988 -1.1585464 0.53930831 33.222221
2.8957131 -1.1394842 0.59911811 6
2.9033949 -1.130819 0.59890878 1
3.0909688 -1.1489031 0.5893836 1
4.8568907 -1.1498389 0.50062186 6.5
0.28778872 -1.0043082 0.52875376 15.666667
0.31967595 -1.008968 0.52560443 1
0.4061048 -1.0612594 0.54737598 1
0.77242905 -1.0141386 0.55753607 5.8333335
0.83865017 -1.0136656 0.55828202 8.6428576
0.96710885 -1.0505555 0.54050219 13.6
1.0777844 -1.046569 0.54753888 27.636364
1.1072937 -1.0527593 0.564448 26.75
2.1051791 -1.0018647 0.5597415 1
2.235364 -1.0782753 0.54658091 4
0.26002225 -0.98282629 0.52570778 8.666667
0.30512005 -0.99308771 0.53010345 11
0.49445388 -0.93406546 0.59929025 10
0.55108237 -0.93251747 0.59508073 10
0.63792574 -0.93625569 0.58722395 8.1333332
0.7206822 -0.98188168 0.55838591 4.2727275
0.86116445 -0.98612463 0.55932128 22.5
0.93103844 -0.94480759 0.53487355 20.82353
1.0634482 -0.9399749 0.56240368 16.029411
1.1334313 -0.92044175 0.58086693 1.7
1.2464482 -0.91412115 0.56128228 4.2105265
1.3392435 -0.90747875 0.56649613 11
1.9821632 -0.9264046 0.57229191 1
2.0518053 -0.94167131 0.56619096 1
2.1736155 -0.94777715 0.55625522 2
2.2414014 -0.9403407 0.55105489 5.1666665
4.8672957 -0.92259187 0.5025757 2.3333333
-2.3070495 -0.81560963 0.54963142 1
1.0750508 -0.88503534 0.53018463 10.222222
1.1360987 -0.88094693 0.54898298 3.5999999
1.2624888 -0.88035029 0.52287918 1.0909091
1.3500104 -0.85730034 0.53808904 9.3703699
1.9447401 -0.84553212 0.52315533 1.5
2.0643387 -0.83232975 0.56897998 1
2.2692685 -0.89212847 0.55038673 5.3333335
2.3249943 -0.85879838 0.54686177 9.2222223
-2.2213163 -0.76339614 0.55821627 8.75
-2.1935422 -0.7161305 0.5618332 44
2.0129161 -0.74963003 0.50137728 7.6666665
2.1525855 -0.71943015 0.56514513 38.200001
2.2424333 -0.78010315 0.5559938 11
-2.2025893 -0.67427349 0.56218183 71.333336
-2.193135 -0.64129001 0.56379426 73
2.0413256 -0.64730966 0.51155996 7
2.1708317 -0.66611671 0.56503618 36.375
2.2641611 -0.61940438 0.55834699 1
-2.2048929 -0.53831041 0.56514513 76
-2.1881871 -0.55172473 0.56626362 75.833336
2.0711408 -0.59405935 0.54565203 1.6
-2.1851075 -0.45005918 0.56851512 76.25
-2.1764028 -0.35076359 0.57083029 76
-2.17523 -0.25064066 0.57213104 75
-2.1704257 -0.15106027 0.5733512 74.153847
-2.161525 -0.047776576 0.56136608 72.058823
-2.1577945 0.052570567 0.55415499 75.111115
-2.2684116 0.17310502 0.56467199 33.285713
-2.1563892 0.11929735 0.5467822 70.875
-2.2911816 0.25069234 0.56205106 36.166668
-2.4002686 0.3595784 0.55137455 26
-2.3143644 0.33433118 0.55913138 23
-2.2878811 0.31030753 0.56171697 33.333332
-2.9085052 0.47742397 0.50584441 57.599998
3.3923216 0.47495568 0.58268464 6
3.4318414 0.48047191 0.5805912 6.5
-2.9085302 0.54022294 0.50489146 59.5
-2.8806257 0.56593108 0.50686699 55.666668
-2.7288465 0.57608604 0.51970798 44.333332
0.90688115 0.59332931 0.51975572 2
1.8896433 0.57554841 0.52259076 15
1.9529024 0.57681364 0.55095738 3
2.0540493 0.57008231 0.55606252 2.2857144
2.1484315 0.55377597 0.56960249 6.2857141
2.8464057 0.53680319 0.51029509 15.333333
2.9036794 0.52664089 0.5055306 20
3.067951 0.57743305 0.59859473 11
3.1205022 0.54793262 0.59616113 6.5
3.2822475 0.53479242 0.58791822 1
3.314872 0.52044153 0.58634812 1
3.4058332 0.50718212 0.58174258 1
-2.9108448 0.6829924 0.50213152 71.5
-2.8890154 0.65588969 0.50451958 45.400002
0.86049926 0.64974314 0.55210555 1.8275862
0.93357611 0.62762988 0.53997719 5.8000002
1.0575608 0.66194344 0.54971516 3.6896551
1.1446812 0.66627973 0.54200137 2.9166667
1.2272296 0.69320303 0.54344314 1
1.9833357 0.60445887 0.58231485 2
2.0706985 0.67096144 0.57327241 6.25
3.0499465 0.67333269 0.59851104 12.6
-2.9039974 0.7294383 0.50175387 81
-2.8765802 0.76768833 0.50322586 41.111111
-2.641196 0.79340219 0.52243882 9
-2.5775871 0.78576142 0.52795869 18.666666
-1.3111086 0.79998994 0.52341956 1
-1.2982121 0.79835302 0.52529675 3
0.83476752 0.71693832 0.55435413 1
0.985744 0.7629326 0.56925488 1
1.0233204 0.74224186 0.56643903 1
2.0646696 0.76373053 0.57109112 6
2.1315424 0.76906931 0.56545889 9.8000002
3.0626726 0.74904084 0.59695923 8.625
-2.8440218 0.82763273 0.50456393 18.545454
-2.6800606 0.80252725 0.51895261 8
-2.5893488 0.80624139 0.52644801 36.5
-2.2626212 0.87261873 0.55154884 6
-1.2890544 0.84643626 0.52240276 5.6875
0.48080921 0.88725209 0.56619519 12
0.52963984 0.87154126 0.55197382 14
0.99525726 0.8128705 0.56315386 1
1.0372673 0.841281 0.56185418 1
1.1210054 0.88977271 0.54000163 1
1.9563427 0.84107107 0.56081736 5.2307692
2.0176284 0.81227911 0.57342494 2
2.9937716 0.83419138 0.59932745 4.6666665
3.0133095 0.86587107 0.59788823 4
-2.8597574 0.90277493 0.50134712 58
-2.4554763 0.97229636 0.53265345 19.799999
-2.3488295 0.91482556 0.5431819 2
-1.2878779 0.94405037 0.51374298 11.214286
0.16232391 0.99166173 0.53761971 10.666667
0.21229807 0.99707359 0.53460246 18
0.36701521 0.97795224 0.57001001 7.25
0.45924631 0.94400203 0.55567497 12.444445
0.55400074 0.93682635 0.57583153 18.5
0.61697274 0.98889899 0.50085986 15
1.0576491 0.95271647 0.54120493 3.4615386
1.1205242 0.96670043 0.56673872 5.7777777
1.9866297 0.90242946 0.57281482 4
2.0354981 0.95492387 0.56700444 5.5
2.9715264 0.92725158 0.59906578 11
3.0875258 0.93394405 0.59315181 6
3.1369994 0.99692249 0.58969766 10
3.2381237 0.96717286 0.58509207 3
-2.7923434 1.0434582 0.50291598 2
-2.6953115 1.0184734 0.51163149 1
-2.4279957 1.0483445 0.53232479 18.714285
-2.326571 1.0778081 0.53938186 12.8
-1.280677 1.0305864 0.50628996 1
0.034550752 1.0621101 0.57064164 44
0.17185389 1.040671 0.54747701 20.928572
0.24101491 1.0398914 0.55398464 24.969696
0.36528769 1.0255719 0.5672977 11.041667
0.44048047 1.0342885 0.56035024 15.804348
0.62420779 1.0474658 0.55286014 27.5
0.85410082 1.0975337 0.54641545 11
0.96914506 1.0621591 0.53891581 1.7647059
1.0463768 1.0328732 0.53379244 1
1.1548462 1.0293484 0.57518953 12.5
1.20847 1.0884931 0.56543994 17
1.8326617 1.0979047 0.53974211 20
1.9881409 1.0314351 0.56775981 29
2.0503511 1.0485997 0.56221086 17.666666
2.115083 1.0604964 0.55670846 11.4
2.9561753 1.0828834 0.5972079 12.75
3.0660408 1.0808455 0.5918259 13
3.1617663 1.0533235 0.58754444 19.857143
-2.3073914 1.1421565 0.5384506 25.428572
-2.2960591 1.1521354 0.53895485 24.5
-1.0463634 1.1955105 0.57004666 20.6
-0.9642117 1.1921003 0.57685506 18.5
-0.86485243 1.1544044 0.58802646 17.833334
0.06030228 1.1662344 0.56422526 40.142857
0.12909895 1.1834574 0.54887158 39.57143
0.6886403 1.1485306 0.56253272 26.5
0.7467742 1.1555216 0.5579806 26.565218
0.84857827 1.1453001 0.56708783 24.235294
0.93296438 1.1317077 0.56007761 16.545454
1.0496024 1.1650723 0.57257342 19.6
1.1501844 1.1623439 0.56434309 16.166666
1.2284782 1.1499287 0.55851781 16.5
1.4989642 1.1299608 0.5994845 19
1.5452565 1.1231053 0.59657931 18.555555
1.6525009 1.1194891 0.58907807 19.799999
1.7619597 1.1131303 0.54796797 14
1.8355192 1.1067035 0.55156016 21.222221
1.9741414 1.1318738 0.56462222 21.799999
2.049557 1.1229368 0.55924761 20.666666
-2.3047488 1.2275765 0.53525072 26.5
-2.2763762 1.2326633 0.5372262 31.166666
-2.120368 1.2327776 0.54910845 99
-2.0907784 1.2473562 0.55071217 100
-1.7494158 1.2794666 0.5740931 29
-1.5292808 1.2812388 0.56046242 21.5
-1.4602718 1.275993 0.5549497 25.833334
-1.3403125 1.2336653 0.54146218 22.5
-1.2452736 1.2196351 0.55110812 24.299999
-1.1550498 1.212998 0.55946839 24.6
-1.0722903 1.2033819 0.56722742 22
0.081225403 1.208025 0.55392152 56.5625
0.12009912 1.2080058 0.5575273 56.533333
-2.2219107 1.3889431 0.53446633 25
-1.8073542 1.3025458 0.56880569 9
-1.7480984 1.3435199 0.57081026 34.099998
-1.6449046 1.3445681 0.54182941 14
-2.2872388 1.4687738 0.52589601 19.333334
-1.7597431 1.4037551 0.56677204 34.333332
-2.3153684 1.5617063 0.51937097 32.599998
-2.2534335 1.5686404 0.52348465 37.57143
2.2807381 -1.4285424 0.62116206 30.6
2.307071 -1.4788399 0.61858708 1
2.2836003 -1.3483171 0.62321365 44.700001
3.8628721 -1.3542724 0.68924975 1
2.2849901 -1.2445921 0.62583274 47.222221
2.3020737 -1.2478437 0.62497211 46
4.9276857 -1.2231352 0.67207652 18
2.2778699 -1.1467865 0.62854409 23.875
2.3614979 -1.1197124 0.62523377 14
2.4503229 -1.1253943 0.6208899 12.333333
2.5504954 -1.1180679 0.61625445 8.8571424
2.7414601 -1.1399409 0.60660219 10
2.8352611 -1.1383339 0.6020838 9
4.9635625 -1.159062 0.67172748 16.666666
5.048305 -1.1600264 0.67028475 19
1.0753548 -1.0267395 0.66741115 30.222221
1.1198813 -1.0566937 0.65081948 38.916668
1.2149982 -1.0036924 0.67961085 1
4.9377317 -1.0453932 0.67260015 24.4
6.5444655 -1.0423402 0.64502537 23
8.2380714 -1.0180495 0.61580998 30.5
0.3857533 -0.92887563 0.6330595 23.75
0.44723842 -0.92887932 0.63894904 30.463768
0.54455853 -0.93065345 0.65067947 45.851063
0.65175831 -0.93444246 0.6441828 39.622223
0.75674671 -0.93086123 0.6529308 26.387754
0.85271573 -0.93234724 0.6548183 32.279999
0.92200994 -0.92918271 0.64676619 32.857143
1.0895728 -0.97228605 0.65257692 27.083334
1.1401349 -0.96778148 0.65988523 3.2631578
1.2372007 -0.96219641 0.65013397 4.8800001
1.3648983 -0.9540742 0.64833122 7.4375
1.4098753 -0.95302731 0.65865982 12.5
3.5551393 -0.9352687 0.6965332 1
4.9591947 -0.95959872 0.67253029 29.4
6.5767298 -0.97759867 0.6446414 24
6.6312251 -0.92646199 0.6438269 9.333333
8.2392464 -0.94605583 0.61593801 43.666668
1.373727 -0.8811512 0.63027537 1.5
1.4137212 -0.88136661 0.61796153 1
4.8742065 -0.88136458 0.67424065 1
4.9688988 -0.8627193 0.67266995 1
6.5120625 -0.86311126 0.64603758 2
8.2460518 -0.85941786 0.6159845 41
-2.2278533 -0.77364659 0.63860559 5
-2.1888752 -0.72215235 0.64140558 36.400002
2.132767 -0.72611207 0.64412707 30.333334
8.2354965 -0.75672275 0.61634231 43.25
-2.1865406 -0.64672625 0.64269382 63.23077
2.0823593 -0.61681801 0.64838368 9
2.133635 -0.65741235 0.64518535 35.111111
2.2555468 -0.62636644 0.63952148 1
8.2406664 -0.65580022 0.6164034 49.333332
-2.1844809 -0.54872656 0.64415562 71.909088
2.06477 -0.59635556 0.64956999 3
8.2475348 -0.55504507 0.6164121 49.5
-2.1780505 -0.45178571 0.64561659 72
8.2522335 -0.45412692 0.61643827 50.666668
-2.1710062 -0.34921965 0.64695317 72.07692
8.2461481 -0.35282502 0.61663032 50
-2.1668417 -0.24891923 0.64788711 71.307693
8.2568674 -0.25229803 0.61650813 52
-2.1631541 -0.14989859 0.6485554 69.615387
8.2613039 -0.15140453 0.6164732 54
-2.1612575 -0.052294914 0.64889365 68.615387
8.2632341 -0.050001681 0.61646152 53.333332
-2.1558201 0.048787583 0.64918119 72
7.8854442 0.074995659 0.62305278 43
8.2697115 0.022346087 0.61635101 52
-2.6759975 0.18571591 0.62162256 42
-2.1519067 0.12359802 0.64923853 58
7.8917255 0.16256255 0.6229189 64
7.9014821 0.14481962 0.62275606 62
-2.9129667 0.25361142 0.60895729 51.666668
7.894114 0.24119674 0.62284333 67
7.9037461 0.28291503 0.62265134 60
-2.9079101 0.3310836 0.60881776 54
-2.8681619 0.36626878 0.61066693 22.666666
-2.7193468 0.36960292 0.61837775 19
5.3546629 0.35972625 0.66702235 1
7.8963552 0.36547592 0.6227212 24
7.9111309 0.34680438 0.62247676 37.333332
-2.909795 0.45627299 0.60783577 55.857143
-2.8977754 0.44207892 0.6085735 46.333332
5.3296132 0.45185319 0.66733646 1.8
7.9228039 0.43601388 0.62219757 7
-2.9023063 0.53966165 0.60749185 54.666668
-2.8751526 0.53491545 0.60893118 45
-2.7113147 0.56818694 0.61701703 28.5
-2.6796362 0.56151456 0.61871791 32.25
3.0325894 0.59222293 0.6002695 13
5.2775846 0.59664094 0.66799271 3
5.3145094 0.54453892 0.66744816 3
-2.8825159 0.6772213 0.60702085 45.333332
-2.7745204 0.61662072 0.61324883 32
3.0235295 0.61708272 0.60047889 9
5.2993054 0.61783737 0.66757381 3
5.3145008 0.66669714 0.6672073 1.5
-2.908046 0.75315434 0.60477042 72
-2.896158 0.76067549 0.60526758 64.25
1.0732965 0.74727201 0.60451943 1
1.1181084 0.72140062 0.60175705 1
2.9792168 0.78880286 0.60068822 2.6666667
5.3383288 0.74563271 0.66661394 1
-2.8896229 0.84892011 0.60435718 67.789474
-0.58454049 0.82733977 0.64075524 15
0.49016234 0.88584387 0.6063298 11.75
0.50952196 0.89310551 0.60382688 11
1.0308734 0.8413592 0.60175705 1
-2.8833714 0.93949503 0.60326755 65.071426
-0.69258958 0.96242166 0.61954999 11
0.17758141 0.99313974 0.60686171 23.9
0.25402364 0.98735702 0.60632539 20.103449
0.35093707 0.95608062 0.63799179 11.175
0.45676205 0.94407117 0.64668739 20.704918
0.52097917 0.94480896 0.64517397 19.777779
2.9524791 0.90435416 0.60037416 10
4.5516057 0.98658836 0.67940658 40
4.9702196 0.98683673 0.67225111 29
5.0303831 0.98145312 0.67123884 7
5.1405668 0.97497177 0.66937149 4
5.2881751 0.97437996 0.66684085 3
5.4359169 0.9721579 0.66431022 21.5
5.5345221 0.9599573 0.66265225 24
5.6994987 0.96809226 0.65979004 22
5.7889962 0.94173652 0.65832406 16.666666
5.9921479 0.91157532 0.65490341 2
6.0941925 0.90534687 0.65315819 2
-2.8752475 1.0476425 0.60181868 61.799999
-2.7318001 1.0868651 0.6081199 13.666667
-2.644592 1.0893558 0.61230671 8.75
-2.5569634 1.0900642 0.61652857 8
-2.454294 1.086413 0.62153882 8
-2.332638 1.0863649 0.62734467 19
-0.76422083 1.0502522 0.60565686 13
-0.0015849014 1.0090472 0.64124274 4
0.016481148 1.0597409 0.64100605 9.833333
0.20683482 1.003177 0.60445261 23
0.59505117 1.0806071 0.65578711 30
0.61939543 1.0894479 0.61126286 25
1.82528 1.0923836 0.65072137 26
2.2724705 1.0940939 0.63002247 24
2.3518548 1.0870544 0.62641656 16.6
2.4565811 1.0788788 0.62158769 10.166667
2.5506213 1.0726013 0.61719149 5.3333335
2.6561913 1.0735829 0.61205554 14.2
2.7492139 1.0615659 0.60775357 24
2.8881886 1.0867497 0.60047889 13
3.3543539 1.0453677 0.69937217 12
3.4552329 1.0437818 0.69769669 11.333333
3.5468323 1.0445629 0.69616091 13
3.6496987 1.0341693 0.69448549 30.200001
3.7666833 1.0240933 0.69256568 13
3.8454227 1.0238891 0.6912393 12
3.9317667 1.0178823 0.68980825 11
4.0451756 1.0182759 0.68788844 11
4.114522 1.0129105 0.68673658 11
4.2210326 1.0235162 0.68488663 11
4.3362789 1.0273919 0.6829145 10
4.4631758 1.0336875 0.68073297 11
4.558723 1.0223264 0.67915058 56.666668
4.9924016 1.0084593 0.67179734 36
5.012589 1.0394356 0.67134356 7.5
-2.8555279 1.1078644 0.60168254 55.5
-2.3020141 1.1212986 0.62800753 23.75
-2.2918758 1.17092 0.62731975 22.857143
-1.2256923 1.1977745 0.67238843 25
-1.1263597 1.1963059 0.65519172 24.125
-1.0462083 1.1912737 0.65528226 23.6
-0.95028079 1.1862245 0.65451914 20.192308
-0.89435351 1.1857712 0.65537596 20.285715
0.042179096 1.1743631 0.66306686 58.208332
0.15086256 1.18788 0.67305088 62.807693
0.24887474 1.1906106 0.69843864 56.166668
0.35140073 1.1887593 0.69722193 41.75
0.44739795 1.1732097 0.69638109 25.869566
0.54505819 1.154447 0.69528174 27.761906
0.65695775 1.1517909 0.66618347 29.944445
0.74986553 1.1502949 0.66622144 29.351351
0.85130459 1.1463456 0.66374558 29.39394
0.94072664 1.1458428 0.65810663 23.652174
1.0471061 1.1655855 0.6532861 17.142857
1.1506 1.1654754 0.64838517 14.5
1.2500983 1.1612588 0.64359617 12.875
1.3492657 1.1439701 0.63918626 16.464285
1.4524586 1.1300095 0.63741189 16.25
1.5545393 1.1209162 0.66175848 16.777779
1.6536893 1.1152872 0.65766454 19.888889
1.750596 1.1064702 0.6536653 21
1.8483603 1.1062236 0.64930826 26.25
1.9635079 1.1250427 0.64360368 18.799999
2.0559878 1.120928 0.63947666 18.714285
2.1587753 1.1189821 0.63476938 19
2.2337554 1.1140943 0.63138324 26.5
-2.2703166 1.2507342 0.62635183 21.545454
-2.1247597 1.2536274 0.63290972 32.833332
-1.7526668 1.2827097 0.64837676 24
-1.5348257 1.2781698 0.65752506 25.200001
-1.4654969 1.268268 0.66063029 26
-1.3467849 1.2255169 0.63762516 25.133333
-1.2498847 1.2119871 0.63966197 24.857143
-1.1614794 1.2074034 0.63756716 23.357143
-1.0654029 1.2046421 0.62301654 22
0.072756067 1.2087072 0.65492278 78.451614
0.13054889 1.2077084 0.65456688 70.633331
0.33755273 1.2017055 0.69677699 45
-2.242732 1.3765702 0.62429166 16
-2.1466291 1.3020935 0.63062435 18
-1.7465941 1.3599123 0.64618558 31.583334
-1.6394055 1.3365903 0.65134943 16
0.015337072 1.335457 0.66157079 21.666666
-2.3010833 1.4954828 0.61837775 13
-2.2899568 1.4492356 0.62017459 16.166666
-2.3145604 1.5681431 0.61568248 32.75
-2.2658172 1.5518981 0.61826003 29.875
-2.1846104 1.5634501 0.62141323 27
2.0530064 -1.1136993 0.71993101 8.6000004
2.1507106 -1.1238097 0.71834296 9
2.258682 -1.1353953 0.71657324 16
2.3455391 -1.1231251 0.71530622 23.333334
2.4483771 -1.1151402 0.71373892 4.4000001
2.5103643 -1.1119162 0.71277559 1
0.5313037 -1.0106983 0.77923077 55
1.0700949 -1.0278622 0.73480052 31.666666
1.1272871 -1.0318513 0.73402309 27.363636
1.2143784 -1.0072838 0.73316002 1
1.3751377 -1.0109004 0.73090863 3.25
1.4276358 -1.0081586 0.770145 5.5
1.5795141 -1.0446649 0.72764504 1
1.6686943 -1.0827525 0.72597831 10.5
1.7476071 -1.0867214 0.72477782 12
1.8479646 -1.0916436 0.72323543 10.5
1.9436392 -1.0982157 0.7217322 8.1999998
0.39112604 -0.92458582 0.71518701 19.5
0.45382133 -0.92238247 0.73027378 21.673077
0.54589427 -0.92755759 0.74362808 29.913044
0.64690644 -0.92692685 0.7210055 23.666666
0.74853301 -0.92660534 0.73735583 18.6
0.85035735 -0.91909754 0.75752455 23
0.94312674 -0.92195278 0.76488322 50.782608
1.0370797 -0.9205209 0.77820337 25.444445
1.1528549 -0.96805876 0.75658393 4.75
1.237159 -0.96683782 0.76353431 2.5217392
1.3634018 -0.97236437 0.75049955 3.6666667
1.4636679 -0.98880839 0.74987823 1
0.5765456 -0.88030797 0.77767169 24.666666
0.65257144 -0.88194036 0.77845448 23.619047
0.73816186 -0.88715875 0.77944654 26.727272
0.83130014 -0.89536631 0.78062695 37.5
0.96843374 -0.89225799 0.78228492 25
1.9502488 -0.82770288 0.72371823 1
-2.2134802 -0.74678266 0.71992153 30.363636
-2.1897328 -0.73040926 0.79959333 36.75
1.9625844 -0.78477913 0.72380549 1
2.1296699 -0.71752906 0.72147268 31.5
-2.2046418 -0.63062239 0.72067279 73.5
-2.183902 -0.6526053 0.76849306 61.944443
2.0717189 -0.61860126 0.75569141 21.333334
2.1595607 -0.64956713 0.73092127 24.125
2.218081 -0.62883812 0.7598778 9
2.3568923 -0.6377039 0.71808112 1
-2.2052529 -0.58553672 0.72087348 74
-2.1830332 -0.54864675 0.76139748 72.639999
2.081579 -0.59766966 0.79710203 8
2.1104836 -0.59840035 0.79759067 7
-2.1785207 -0.44735864 0.76138771 69.599998
-2.1776056 -0.34969792 0.75835681 69.959999
-2.1766353 -0.25142938 0.75990194 74.153847
-2.174298 -0.15021279 0.76126432 67.444443
-2.1674595 -0.05011135 0.75989395 66.269234
-2.1618822 0.049399164 0.75851339 69.222221
-2.2028482 0.14592665 0.72216499 65
-2.1582785 0.1207046 0.76328409 60.363636
-2.9289048 0.25074735 0.70938635 68.699997
-2.9250684 0.31104368 0.70935488 71
-2.881613 0.32220566 0.7100879 15
-2.649528 0.31000587 0.71413684 4.5
-2.5648031 0.35669172 0.71549815 15.111111
-2.4691207 0.31893 0.71724337 8
-2.5345562 0.4494746 0.71576577 37
-2.5256569 0.55288291 0.71556801 35.363636
-2.5251 0.65384346 0.71516812 36.090908
-2.6388826 0.79346609 0.71260107 7
-2.5326416 0.72812754 0.71470118 26.083334
-2.838573 0.8857528 0.70879644 19
-2.7666044 0.84771985 0.71019256 10.5
-2.9109988 0.9499017 0.7072506 71.14286
-2.8891327 0.94822592 0.70762134 62.166668
-2.9025364 1.0582304 0.70677197 71.5
-2.8903337 1.0466167 0.7070412 72.85714
-2.6212742 1.0970397 0.71110016 7
-2.5483046 1.0923768 0.71230435 7.5
-2.4431593 1.0825672 0.71405536 9
-2.3566635 1.0885131 0.71538764 21.666666
-0.042293172 1.0349907 0.77738076 2
0.0044737323 1.0222683 0.7255947 7
1.8265507 1.0970545 0.79649115 35
2.2760801 1.0900266 0.71665001 24
2.3450272 1.0928785 0.71554005 19
2.4524274 1.0915362 0.7138437 18.200001
2.5602698 1.086203 0.71215427 14.2
2.6545849 1.0827183 0.71065801 16.666666
2.7381158 1.0726668 0.70936882 31.799999
2.8592455 1.0803542 0.70734787 14
2.9664643 1.0913621 0.70552701 15
3.0493095 1.0857443 0.70420057 14.333333
3.1703165 1.0734274 0.70227504 27.166666
3.2537837 1.0515599 0.70101267 12.5
3.301178 1.0478309 0.70024472 12
-2.8730121 1.1156387 0.7069028 50.75
-2.7532406 1.1072532 0.70890117 7.6666665
-2.6750488 1.1031067 0.71019256 7
-2.3118343 1.1469048 0.71565175 26.6
-0.9066754 1.1997099 0.73445147 21
0.037458252 1.1823704 0.75287646 75.105263
0.15359892 1.1950586 0.76811808 84.050003
0.24601611 1.1924071 0.76738948 57.599998
0.35310924 1.1929507 0.76386499 38.51852
0.45249322 1.1790746 0.7632522 26.842106
0.54845935 1.1686056 0.75993431 33.809525
0.6496551 1.1630784 0.76048785 35.358974
0.75066829 1.1549845 0.75993657 26.868422
0.85254282 1.1532899 0.76068902 24.806452
0.94551432 1.1528211 0.75908864 22.518518
1.0516676 1.1677108 0.75997579 17.23077
1.1501138 1.1664245 0.75990051 18.076923
1.2481776 1.1643078 0.7599619 19.727272
1.3455182 1.1480278 0.75888193 21.965517
1.4514166 1.1347249 0.76000178 22.4
1.5509714 1.1298862 0.76164043 24.894737
1.6501919 1.1208972 0.75817591 24.31579
1.7493149 1.1158991 0.75986779 25.428572
1.8380178 1.1087497 0.75144333 30.461538
1.9613582 1.1301239 0.75985163 22.375
2.0351281 1.1291611 0.74640715 21.555555
2.1447525 1.1250776 0.71842432 18.666666
2.2529695 1.1177372 0.71679968 33.142857
-2.3072095 1.2206416 0.71513748 22
-2.2936311 1.2554628 0.71505749 20.625
-1.758757 1.2783145 0.76530027 21.571428
-1.5397995 1.2832164 0.75681436 23.818182
-1.4583114 1.2741399 0.76818252 25.375
-1.3549826 1.2599005 0.76011503 27.6
-1.2489487 1.2533613 0.76409274 27.826086
-1.1477374 1.2462615 0.75781864 25.458334
-1.0464936 1.2434205 0.76248747 22.653847
-0.96169698 1.2286456 0.74949026 20.411764
-0.025116889 1.242222 0.78098863 54.727272
0.061549038 1.2127764 0.7549969 91.793106
0.14793812 1.2055688 0.75464833 86.555557
0.25430429 1.2065901 0.75105023 58.095238
0.3465364 1.2049924 0.75290906 41.166668
0.43081644 1.2041584 0.74455833 32.57143
-2.3022208 1.311566 0.71445101 20
-2.2879632 1.3509237 0.71432006 19.75
-1.7515193 1.3487765 0.76313239 30.666666
-1.6630077 1.3495266 0.7593019 19
-1.5974745 1.3033322 0.72471303 21
-2.3053899 1.4501007 0.71315956 26.6
-2.2898326 1.4502418 0.71338642 20.75
-1.7663765 1.4060462 0.72129238 34
0.020726718 1.4136449 0.78397781 35
-2.3200123 1.5613927 0.71188551 29.375
-2.2499914 1.5821478 0.71268833 39
-2.1638842 1.5497603 0.71424156 24
0.012045437 1.5337313 0.78607208 38
0.18928346 -1.823788 0.85389185 6
0.24109273 -1.8287963 0.85447627 22.166666
0.38357934 -1.8212401 0.85533977 17.833334
0.45393929 -1.8223058 0.85622948 40.066666
2.7194531 -1.8460325 0.81667203 2
0.094133317 -1.7885084 0.85165882 9.666667
0.13653481 -1.770858 0.85088485 6.7272725
0.27624682 -1.7641647 0.85137975 1
0.49362797 -1.7586417 0.85352552 9
2.6955898 -1.708694 0.81500816 1
2.7419851 -1.7548844 0.81612515 1
3.6278543 -1.7210802 0.82938898 3
3.7050362 -1.7261124 0.83064556 1
3.8988452 -1.7833847 0.83413601 1
3.9263659 -1.7711341 0.83448505 1
4.1185784 -1.7814146 0.83762652 1
0.48939595 -1.6548685 0.84823948 9.833333
2.1128893 -1.6265565 0.89754003 3
2.6714356 -1.6543204 0.81414717 1
2.7010965 -1.6468158 0.81451952 1
3.0439925 -1.6438215 0.8196854 1
3.9790807 -1.6230226 0.83431053 12
4.0802755 -1.6976193 0.83643973 4
4.1083641 -1.6925067 0.83685857 15
0.26753888 -1.5179167 0.86323541 5.4117646
0.48904082 -1.5542443 0.84318912 12.75
0.57135487 -1.5096555 0.89750636 7
2.8520787 -1.5530671 0.8159855 1
3.7492363 -1.5140285 0.82987761 3
0.27665436 -1.4941201 0.88922656 1
0.48818913 -1.4702384 0.83898658 36.400002
0.54719204 -1.4410683 0.85753751 24.636364
0.65852433 -1.411074 0.8854028 57.133335
0.73740011 -1.4104548 0.88275158 39.714287
2.3696051 -1.4221143 0.80753857 1
2.4707344 -1.4828475 0.80959791 1
2.5433064 -1.4778969 0.8106451 5.4000001
2.6504297 -1.4434351 0.81198311 1
3.7232125 -1.4511083 0.82905155 1
4.2646995 -1.436007 0.83784753 8.333333
4.3192015 -1.4125468 0.83862126 18.5
0.56603849 -1.3453622 0.8439061 25.8125
0.62788504 -1.3602909 0.8493433 29
0.7576893 -1.3818022 0.85828358 39.25
0.87027192 -1.3291043 0.89528394 27
0.91692674 -1.3065807 0.89593756 10.5
2.6436644 -1.3459061 0.81108326 9.8888893
3.7273984 -1.3936023 0.82876062 1
5.6155167 -1.3311045 0.86003542 5.5
0.73194385 -1.2369795 0.85641211 38.684212
0.83512795 -1.2293801 0.88631552 23.4
0.90662616 -1.2919148 0.89436877 4
2.59937 -1.2666744 0.80977243 1
2.6037757 -1.2575933 0.80977243 1
5.5056472 -1.2741156 0.85794109 5
0.75462323 -1.1751187 0.83968318 57.045456
0.81183952 -1.1335474 0.83087349 61.18182
4.94063 -1.1165907 0.84771401 15
0.85725021 -1.0456167 0.82868189 72.153847
0.91809523 -1.003682 0.82908458 13
1.0204298 -1.0048763 0.83285278 1
1.1721408 -1.0375521 0.85874283 15.8
1.2062881 -1.0300949 0.89506602 1
4.9585743 -1.0578784 0.84780121 18.25
5.0279465 -1.0733099 0.84904039 13
0.89442605 -0.97792006 0.82725286 19.5
0.94565964 -0.98209411 0.82925659 3.6428571
1.0374998 -0.99007225 0.83295745 1.5
1.1894873 -0.99375504 0.83902842 37.75
1.2251965 -0.98118788 0.84006202 11.25
4.8910422 -0.92771071 0.84619564 35.5
4.9198399 -0.96008235 0.84679776 38.75
6.4864388 -0.94087434 0.8737064 19.666666
-2.2317259 -0.80435216 0.84142524 1
3.4553087 -0.89549434 0.82160521 1
3.546804 -0.89281607 0.82314098 1
3.634917 -0.89483958 0.82464188 1
4.9543853 -0.85949343 0.84707177 23.200001
5.0239091 -0.80020386 0.84809792 1
6.4977059 -0.89469671 0.87378788 18
6.560698 -0.84518504 0.87476522 9.5
6.6352339 -0.85412979 0.87607414 13.5
7.5402279 -0.85152793 0.89175224 30.333334
-2.222162 -0.78472543 0.80043542 6
-2.1810939 -0.74381435 0.87857342 28.1
2.3385422 -0.73763818 0.80210209 21.25
6.5758653 -0.78878093 0.87490487 1
7.5442815 -0.75835228 0.89165038 39.5
-2.1751621 -0.65045959 0.87678885 61.5
2.0458763 -0.61106879 0.86969727 1
2.261447 -0.61145389 0.8001911 3
2.3390441 -0.61931258 0.80153489 1
7.5451694 -0.65216184 0.89149332 39.5
-2.1736434 -0.55297422 0.8753497 64.583336
2.0559402 -0.59084105 0.8699066 13.4
2.1505759 -0.58623725 0.87461686 8
2.2641547 -0.59183526 0.88044357 3.3333333
7.5575285 -0.5470382 0.89156318 43.5
-2.1720796 -0.453334 0.87409359 67.153847
7.5559473 -0.440938 0.89141482 40
-2.173466 -0.35229915 0.8731997 70.307693
7.5554695 -0.34837064 0.89132172 36.333332
-2.1772673 -0.24905096 0.87265795 71.714287
7.5789537 -0.2567142 0.8916679 44.75
-2.1745098 -0.14594464 0.8720243 65.307693
7.593286 -0.15144727 0.89186859 47.25
-2.1724255 -0.047850437 0.87168604 66.53846
7.5866203 -0.044326421 0.89172894 46
7.6017094 -0.045111723 0.89199072 48.5
-2.1610026 0.049974516 0.87109035 66.692307
7.5937662 0.034456447 0.89185113 47
7.6033535 0.086266965 0.89202565 45.5
-2.9068904 0.197152 0.8101564 63
-2.1666882 0.12164274 0.8715291 61
7.5966086 0.15338956 0.89192677 44
-2.9187269 0.25506169 0.81044334 70.555557
-2.8571379 0.24444064 0.80935359 42
-2.6187727 0.29744536 0.80530465 9
-2.506547 0.2931211 0.80334997 16
-2.4857075 0.29904309 0.80300093 30
7.6077843 0.24707945 0.8921653 43
-2.9171724 0.30969584 0.81050545 59
-2.8901772 0.3175467 0.81005168 42
-2.5248353 0.35711241 0.80381143 32.666668
-2.4953666 0.35326684 0.80329764 36.5
5.2746472 0.36421639 0.85158843 1
5.3180017 0.35473657 0.85233307 1
7.6186028 0.35330096 0.89242709 43.75
-2.6060038 0.48957646 0.80558383 61.5
-2.555696 0.453125 0.80460656 45
-2.4933128 0.41498667 0.80341977 40.5
5.2608695 0.44647655 0.8514604 1
7.6264744 0.43443269 0.89263648 11.5
-2.6180701 0.54328334 0.80597478 49.799999
-2.5383275 0.52760589 0.80455416 28
-2.4832413 0.54781032 0.80368739 22.666666
5.2378845 0.54677999 0.85122538 3
-2.6418505 0.63552666 0.80672997 52.5
-2.510113 0.66410565 0.80462396 28.5
-2.4816265 0.66743481 0.80415714 28.875
5.243022 0.64004254 0.85149765 1.4
-2.5312469 0.75276053 0.80539691 43.285713
-2.4945624 0.71942562 0.80461818 33.333332
5.2751331 0.72822267 0.85225159 1
-2.7673218 0.89862263 0.81008661 38
-2.6502788 0.84891576 0.80787593 40.333332
-2.5622168 0.80689222 0.80618888 34.666668
-2.9018805 0.9788577 0.81275678 72.5
-2.8857245 0.96718574 0.81242526 64.75
-2.7928381 0.91068238 0.81057525 47
4.5397854 0.98444623 0.84038401 47
4.9603181 0.98532969 0.84757435 28
5.0397716 0.97507006 0.84890074 4
5.1276226 0.97350931 0.85040164 3
5.2214203 0.97244769 0.85200727 3
5.3349442 0.97433323 0.85396194 8
5.4443226 0.96487474 0.85581189 63.5
5.6680679 0.97395241 0.85968637 36
5.7263446 0.95309758 0.86062878 15.5
5.86551 0.94475156 0.8630023 3
5.9775801 0.94033968 0.86492205 3
6.2534113 0.96249306 0.86973894 7
6.3481884 0.94422138 0.8713271 26
-2.8880374 1.0469534 0.8129226 73.625
-2.6455979 1.0958347 0.80928379 6
-2.5524156 1.0971504 0.80779451 6
-2.4447665 1.0868794 0.86734158 6.8333335
-2.351336 1.0861181 0.84886473 10.2
-2.2895312 1.0920346 0.89073634 33
-0.16165395 1.0382259 0.88387579 2
1.8314356 1.0950524 0.86962754 27.666666
2.2743354 1.0940521 0.84668845 30.833334
2.3448262 1.0877945 0.84886467 20.299999
2.447928 1.08447 0.8520506 19.4
2.5457661 1.0804871 0.8075735 17.5
2.6388235 1.0767697 0.80904818 20.5
2.7356999 1.0667623 0.81055433 32
2.8562336 1.0798519 0.81259978 15
2.9504776 1.0860367 0.81417918 13.75
3.0629456 1.0851917 0.81602049 15.333333
3.1609485 1.0647109 0.81752133 27
3.2621017 1.048568 0.8191095 12
3.3509912 1.044926 0.82056969 12
3.4464393 1.041805 0.82214618 12
3.5303502 1.0403413 0.82354242 12.5
3.6336901 1.0302141 0.8252266 45.25
3.7433629 1.0183803 0.8270154 12
3.8605633 1.0214114 0.829005 11.5
3.9507883 1.0161985 0.83050597 12
4.0545321 1.0138546 0.83225119 12
4.1627278 1.0178436 0.83410108 12
4.2712379 1.0285894 0.83598596 10
4.3584166 1.0250063 0.83745199 10
4.4745374 1.0289164 0.83944154 15
4.5401688 1.0106909 0.84048867 72
4.9808283 1.0251435 0.84806305 14.5
-2.9006908 1.1036078 0.81347239 87
-2.8708837 1.1142445 0.81305343 46
-2.7627113 1.1051289 0.81123847 6.3333335
-2.6604068 1.1017953 0.80956304 6.5
-2.5253272 1.1026871 0.80739892 6
-2.3209982 1.1510323 0.804524 10.727273
-2.2891593 1.1510808 0.89208663 13
-0.17265774 1.1349469 0.89581895 2
0.049042452 1.185672 0.85425919 88.428574
0.15571477 1.1941196 0.84683782 95
0.25259662 1.191528 0.84503412 81.75676
0.34984931 1.188702 0.84815359 50.5
0.45270973 1.1719265 0.84537613 38.720932
0.55070245 1.1589404 0.8467409 49.119049
0.65181428 1.1568527 0.84988934 53.36842
0.7494936 1.1500422 0.85302585 40.388889
0.84583515 1.1449715 0.85738397 32.967743
0.9378618 1.1470968 0.86071008 26.538462
1.0501132 1.1648514 0.86580992 18.862068
1.1417614 1.1617172 0.86527699 16.9
1.2487295 1.1586543 0.84708017 17.846153
1.3515923 1.1437758 0.85059869 22.538462
1.4429805 1.130465 0.85386854 18.555555
1.5425265 1.127386 0.85793221 23.799999
1.641603 1.1184849 0.8619051 23.222221
1.7452929 1.1148136 0.86633474 24.875
1.8340225 1.1116194 0.87019449 28.5
1.9631376 1.1280956 0.87645912 22.4
2.0595293 1.1251572 0.84411907 22.09091
2.1547718 1.1206466 0.85029221 21.416666
2.2460232 1.1171354 0.8414827 31.444445
-2.3168492 1.2561748 0.80530465 11
-2.2778642 1.251328 0.89400977 9.363636
-1.757136 1.2826867 0.87181169 20.200001
-1.5338098 1.278334 0.86244005 24.166666
-1.4482533 1.276583 0.85897887 26.200001
-1.3462808 1.2719042 0.85486537 26.299999
-1.2483799 1.2687359 0.85108471 28.181818
-1.1507081 1.2712389 0.84766793 26.461538
-1.0514568 1.2598472 0.85500818 19.266666
-0.98998475 1.2593837 0.84174991 2
-0.01789961 1.2362205 0.84345841 63.8125
0.057462931 1.2104081 0.83831835 108
0.14623585 1.2043328 0.83717191 95.769234
0.23314393 1.2040057 0.83248049 78.25
0.34533104 1.2042649 0.82347155 47
0.41961899 1.2040893 0.83539748 39.25
-2.3106685 1.3531424 0.80604148 10.444445
-2.2755892 1.3548334 0.89659798 8.1111107
-1.7487127 1.3580012 0.87384051 25.666666
-1.6022993 1.3030821 0.86603379 14
-0.043133646 1.3228422 0.83824915 29.25
0.0067493166 1.3810319 0.87711191 22
-2.3384557 1.4612948 0.80743378 11.571428
-2.279021 1.4419371 0.88345271 8.166667
-0.060149934 1.4515375 0.84603637 17
0.021609865 1.4313507 0.85702193 33
-2.3197544 1.5447096 0.80795163 24.5
-2.2710207 1.5552398 0.80734903 29.142857
-2.1888933 1.5618994 0.852539 28.5
-0.14214803 1.5958854 0.89646053 11
-0.07404726 1.5427159 0.86015999 18.4
-0.12782319 1.6118929 0.89775819 34.333332
-0.08442542 1.6089287 0.89724487 59.5
0.018861469 1.6129252 0.86982012 80
0.73854113 -2.4371319 0.97908413 1
0.73368251 -2.3469241 0.97141445 1
3.465692 -2.3017282 0.97583461 1
3.2321002 -2.2614601 0.96453005 1
3.365083 -2.2689226 0.97049636 1
3.4557424 -2.2950034 0.97520661 1
1.9044613 -2.0110967 0.99860704 1
2.6496029 -2.0097008 0.93208176 13
2.76405 -2.0291049 0.93749857 1
2.847508 -2.0442181 0.94150221 1
2.9202299 -2.0660651 0.94527042 1
0.20238292 -1.9223161 0.9253962 1
0.61999279 -1.9356935 0.93411177 1
1.9110292 -1.9494361 0.99512082 1
2.520031 -1.9260122 0.92402202 7
2.6422427 -1.989627 0.93113971 3
3.5764291 -1.9016212 0.97007763 6
0.20381445 -1.8700644 0.92086411 1
0.59374911 -1.8101562 0.92295587 1
3.3304272 -1.8150541 0.95657498 1
3.4491942 -1.8641943 0.963274 1
3.5589612 -1.8918809 0.96903098 1
0.58439064 -1.7318907 0.91620129 9.75
1.863097 -1.7126055 0.97768962 1
2.0741737 -1.7098032 0.99146026 12.5
2.113121 -1.7172668 0.99451071 17.5
2.682795 -1.7282906 0.92504776 1
3.0765185 -1.710964 0.94228727 2.5
3.248805 -1.7853073 0.95207411 1
3.7524359 -1.7021805 0.97374117 1
0.58956295 -1.6533632 0.94012815 10.083333
1.824971 -1.677559 0.97315753 1
2.1179078 -1.6906677 0.99337769 1.6666666
2.6846507 -1.6598183 0.9232195 1
2.7148595 -1.6630163 0.92465007 1
3.732446 -1.6539352 0.97175241 1
3.8492939 -1.6344547 0.97696513 1
3.9598393 -1.6248332 0.98211491 1
4.0081387 -1.6120739 0.98420835 1
0.59148276 -1.5500734 0.94701213 8.5
1.1916299 -1.5334747 0.99331445 38
1.221352 -1.528332 0.96120024 41.875
2.5689173 -1.5123296 0.91402584 7.5
2.6234715 -1.5632823 0.91784638 1
4.0509925 -1.5796686 0.98567379 1
4.175252 -1.5793693 0.99174476 1
0.59397644 -1.4362693 0.94570422 17.333334
0.6483174 -1.409245 0.94535881 36.333332
0.74760187 -1.4091289 0.95074719 34.785713
0.84751022 -1.412155 0.95710182 37.5
0.91205132 -1.4179552 0.96187216 39
1.1132638 -1.4435169 0.97869015 18
1.2552211 -1.4875786 0.94335413 39.9375
1.3120763 -1.4705372 0.92870814 1.5
2.5703294 -1.482787 0.91331053 6.6666665
2.6315808 -1.4937311 0.916381 1
-3.0345638 -1.35552 0.93197709 1
0.64109874 -1.3985046 0.94378674 39.400002
0.751791 -1.397033 0.94968522 33.5
0.89068079 -1.3889771 0.90064394 48
0.95704132 -1.363812 0.94579399 28.380953
1.0238519 -1.3599304 0.9443121 16
-2.2166526 -0.8195256 0.9630475 1
-2.183917 -0.81609881 0.96025848 1
-2.1696835 -0.74767274 0.95707732 25.333334
-2.1652811 -0.64694607 0.95401239 59.666668
-2.1708157 -0.5475902 0.95217317 62.076923
2.056648 -0.56485337 0.9428854 12.5
2.1273479 -0.55250746 0.94857961 1
2.2605779 -0.57033515 0.96025848 1
-2.1677358 -0.44798538 0.94995958 74.083336
-2.1716185 -0.35155219 0.94876736 66.46154
-2.1749008 -0.25214875 0.94785559 76.230766
-2.1767378 -0.15305454 0.94721198 67.92308
-2.1690836 -0.050951 0.94612676 69.571426
-2.1588411 0.05039572 0.94522756 67.769234
-2.9193239 0.19901894 0.91114736 61
-2.1605864 0.121858 0.94561642 61.833332
-2.9283028 0.2499772 0.91182774 62.5
-2.8946221 0.25833735 0.91010064 54
-2.9227676 0.3500028 0.91207635 51.625
-2.856643 0.33456746 0.90853059 12
-2.9205534 0.45061174 0.91267556 62.200001
-2.9171114 0.54923868 0.91336876 61.222221
-2.915257 0.64920938 0.91432941 61.599998
-2.9157581 0.73486525 0.91538662 38
-2.844101 0.77339774 0.91226387 27.333334
-2.9082291 0.84472525 0.91651177 63.625
-2.8910744 0.86078072 0.9158926 58.666668
-2.9044166 0.93221194 0.91766322 69.125
-2.891741 0.95126635 0.91734052 69.166664
-2.9035182 1.0477011 0.91957343 71
-2.8934796 1.0443141 0.91901875 68.599998
-2.6162057 1.0900927 0.90633249 7
-2.5494707 1.0918866 0.93481159 6.5
-2.4530268 1.0828604 0.99087924 7
-2.3458369 1.0813259 0.98227984 13.5
-2.2912335 1.0884321 0.97821259 17.5
1.8400999 1.0966849 0.94369888 26.666666
2.2729177 1.0874891 0.97673094 24.25
2.3626976 1.0851066 0.98375571 17
2.461165 1.07882 0.99139053 15.6
2.5454633 1.0792005 0.93448573 15.666667
2.6411602 1.0766613 0.90727454 17.75
2.7357836 1.0657793 0.9116708 29
2.8550951 1.0782812 0.91774172 13
2.9562564 1.0870105 0.92287064 14
3.0408568 1.0821809 0.92695284 13
3.1491108 1.0717525 0.93213409 23.5
3.2431421 1.0474315 0.93640822 10.666667
3.3458629 1.0484884 0.94155455 12
3.4341927 1.0433122 0.94589847 10.666667
3.5466328 1.0437772 0.95155072 11.5
3.6344347 1.0293944 0.95576376 27.25
3.7585263 1.0211124 0.96191323 10.5
3.855351 1.0185862 0.96678048 10
3.9694667 1.0202532 0.97258979 10
4.062633 1.0144045 0.97724771 9
4.1697521 1.0180188 0.98274297 9
4.2762012 1.0282056 0.98829061 8
4.3361273 1.0266159 0.99132609 9
4.441484 1.0277889 0.99671662 10
-2.8760304 1.1115597 0.91939032 49.75
-2.7488618 1.106022 0.91308379 7
-2.6698451 1.1015208 0.90915859 7
-2.2836959 1.1489455 0.97995579 12.2
-0.15269423 1.1906275 0.90227801 23
-0.020602215 1.1982031 0.94337416 49
0.05728516 1.190151 0.94091809 57.515152
0.15326186 1.1927557 0.93228191 63.260868
0.25195986 1.189159 0.94464922 57.796612
0.34808913 1.1893513 0.94980299 36.725807
0.44838738 1.1716598 0.95166659 31.471428
0.546579 1.1557252 0.94571328 42.346153
0.65302384 1.1501708 0.93949825 37.846153
0.75023675 1.1431315 0.94572198 27.542856
0.85039568 1.1418223 0.95504683 23.454546
0.9430443 1.1455667 0.96160257 15.478261
1.0416353 1.1627836 0.9584806 14.888889
1.1581182 1.1577725 0.94011551 19.277779
1.2463388 1.1529373 0.93536055 20.217392
1.3454906 1.1383804 0.94087428 21.535715
1.4473703 1.1240675 0.94827032 20.950001
1.5476539 1.1178818 0.95631772 22.450001
1.6461985 1.1125028 0.95283592 21.866667
1.750878 1.1092896 0.93762708 21.666666
1.824352 1.107354 0.94300169 30
1.9543186 1.1223838 0.9534604 20.200001
2.0512481 1.1210986 0.96080631 20.714285
2.1476054 1.1159742 0.96803284 19
2.237895 1.1142471 0.97500527 26.200001
-2.2794979 1.2477877 0.98365104 9.8999996
-1.7571054 1.278491 0.94640076 22.25
-1.6057292 1.2975124 0.93690073 26
-1.5473313 1.2819829 0.93208981 26
-1.4519451 1.2626386 0.92463356 27.5
-1.351113 1.2553045 0.9176473 30.90909
-1.2463975 1.2547592 0.91102999 30.416666
-1.1391913 1.2552215 0.92287779 22.8125
-1.0786636 1.2569003 0.93924987 17.888889
-0.22350959 1.2266439 0.95080775 10.3
-0.14572512 1.2170566 0.93096823 36.5
-0.047641039 1.216276 0.93186986 43.96154
0.06520731 1.2072933 0.9522506 61.260868
0.14528556 1.2050992 0.96594018 74.279999
0.23218009 1.2023214 0.96014583 65.400002
0.35886803 1.2009399 0.95190275 29.200001
0.44009188 1.2052144 0.95653319 30
-2.2719002 1.3427312 0.98717999 8.1111107
-1.736481 1.3199041 0.94711983 28.375
-1.6641989 1.3208926 0.9421736 30.5
-1.5753797 1.3000287 0.93498337 36
-1.3023717 1.3961365 0.98929274 47.5
-1.2903343 1.3978322 0.98843968 49
-2.2820363 1.4548255 0.96952349 7.4166665
-1.3436753 1.4158678 0.99453312 32.333332
-1.282748 1.4047933 0.98843968 34
-2.31668 1.565644 0.92828453 18.5
-2.2713115 1.5565273 0.94639188 27.333334
-2.1227133 1.515794 0.98448777 10
0.0055927718 1.5206668 0.96765226 36.5
0.016860379 1.6233448 0.95419443 63
-0.51425344 -5.3019233 1.036963 32
-0.41160113 -5.3008547 1.0364397 32
-0.35605454 -5.30481 1.0364397 32
-0.24879014 -5.3089013 1.036335 32.666668
-0.14415108 -5.3112569 1.0362566 30.75
-0.051887088 -5.3089113 1.036042 29
0.049661558 -5.3164945 1.0364397 27
0.15255168 -5.3209581 1.0367745 29.4
0.22563575 -5.3240018 1.0370677 16
-1.0148729 -5.2800879 1.0395799 1
-0.95730162 -5.2769613 1.0388682 1.8
-0.85315257 -5.267386 1.0374515 6.8333335
-0.75183904 -5.2782578 1.0372143 10
-0.6502769 -5.2868705 1.036963 19.5
-0.55857641 -5.287859 1.0364659 28.75
-0.46628186 -5.2867684 1.0359424 24.75
-0.34012389 -5.2932048 1.0357767 29.666666
-0.26371521 -5.2972679 1.0357593 30.5
-0.17106886 -5.296073 1.0354977 28
1.8866911 -2.036015 1.0956848 1
2.698153 -2.0480099 1.0526435 1
2.7445228 -2.0229428 1.0545859 1.2857143
2.837204 -2.0237451 1.0611849 1
1.8768129 -1.9901938 1.090749 5.25
1.9109411 -1.9913192 1.0937349 1
0.76691258 -1.8076055 1.0643165 9
5.3656449 -1.8088671 1.0545479 7
5.4214473 -1.8276684 1.0576357 1.5
5.6095777 -1.8475907 1.0673178 1
5.7521996 -1.8611852 1.0746449 1
5.8212204 -1.8387771 1.0777327 1
5.9045405 -1.8300194 1.0817626 1
0.77058721 -1.7485933 1.0559733 16.666666
1.3481849 -1.7003764 1.0970113 6
1.7627586 -1.7257271 1.057759 1
1.837411 -1.7253438 1.0643469 1
1.9409392 -1.7323178 1.0743053 1
2.0444467 -1.7507931 1.0853665 1
2.1299992 -1.7591542 1.0940598 1
2.6667523 -1.725245 1.0341666 1
0.77587926 -1.6376069 1.0466133 22.4
1.310969 -1.6416346 1.086061 6
1.4456301 -1.6558578 1.0247567 1
2.6693332 -1.6767111 1.0320748 1
2.7523324 -1.6710836 1.0380014 1
